-4.948352 1.627699 61.85962
-4.948352 1.630362 61.96608
-4.948352 1.633163 62.07463
-4.948352 1.63611 62.18541
-4.948352 1.639207 62.29852
-4.948353 1.642463 62.41413
-4.948352 1.645883 62.53238
-4.948352 1.649478 62.65346
-4.948352 1.653254 62.77753
-4.948352 1.657221 62.90479
-4.948352 1.661389 63.03544
-4.948352 1.66577 63.16971
-4.948352 1.670374 63.30782
-4.948352 1.675215 63.45004
-4.948352 1.680306 63.59664
-4.948352 1.685663 63.74793
-2.286678 1.576771 63.20934
2.183057 1.781911 67.27043
2.908423 1.854398 68.48974
2.908424 1.830042 67.99673
2.908424 1.808055 67.54884
2.908423 1.788115 67.13993
3.020829 1.785031 67.02969
2.978147 1.762336 66.57605
2.918836 1.739413 66.12243
3.052649 1.741347 66.09949
2.98042 1.719478 65.66924
2.908424 1.699194 65.27038
3.011757 1.699255 65.21561
2.908424 1.677754 64.80272
3.012027 1.67867 64.76197
2.157759 1.584901 63.18709
3.047108 1.664081 64.41176
3.163217 1.666735 64.3957
3.301049 1.671337 64.40752
5.221219 1.834728 66.86726
5.424146 1.841054 66.86726
5.632487 1.847699 66.86726
5.846585 1.854685 66.86726
6.066822 1.862027 66.86726
6.29361 1.869746 66.86726
4.80712 1.728611 64.57798
4.80712 1.721911 64.39877
4.824456 1.716818 64.24243
4.824456 1.71076 64.07452
4.824456 1.705005 63.91198
4.824456 1.699535 63.75449
4.824456 1.694335 63.60169
4.824456 1.689388 63.45331
4.824456 1.684682 63.30907
4.824456 1.680204 63.1687
4.824456 1.675942 63.03199
4.824456 1.671885 62.89869
4.824456 1.668023 62.76861
4.824456 1.664348 62.64157
4.824456 1.660851 62.51737
4.824456 1.657523 62.39584
4.824456 1.654358 62.27685
4.824456 1.651348 62.16022
4.824456 1.648487 62.04584
4.824457 1.64577 61.93355
4.824456 1.643191 61.82324
4.824457 1.640744 61.7148
4.824456 1.638425 61.6081
4.824456 1.63623 61.50307
4.824456 1.634154 61.39957
4.824456 1.632194 61.29751
4.824456 1.630345 61.19682
4.824456 1.628606 61.09739
4.824456 1.626972 60.99916
4.824456 1.625442 60.90204
4.80712 1.623066 60.80097
4.80712 1.621739 60.70616
4.80712 1.620507 60.61223
4.998203 1.629646 60.56323
5.53271 1.657195 60.58098
6.072227 1.684903 60.58098
6.718208 1.718192 60.58098
7.50614 1.758921 60.58098
8.489239 1.809879 60.58098
2.157583 1.478614 58.66793
8.584633 1.831509 56.65751
8.063647 1.805467 56.65751
7.595777 1.782214 56.65751
7.173056 1.76133 56.65751
6.789029 1.742478 56.65751
6.438401 1.72538 56.65751
6.11682 1.70981 56.65751
5.82064 1.695573 56.65751
5.546807 1.682514 56.65751
5.292736 1.670496 56.65751
5.056225 1.659403 56.65751
4.835376 1.649135 56.65751
4.628567 1.63961 56.65751
4.434387 1.630753 56.65751
4.251606 1.622498 56.65751
4.079139 1.614792 56.65751
3.916049 1.607583 56.65751
3.761499 1.600828 56.65751
3.614742 1.59449 56.65751
3.475126 1.588533 56.65751
3.342061 1.582927 56.65751
3.215021 1.577644 56.65751
3.093534 1.57266 56.65751
2.977171 1.567955 56.65751
2.865553 1.563507 56.65752
2.814857 1.563285 56.60661
2.814858 1.566755 56.50861
2.814858 1.570408 56.40737
2.814858 1.574254 56.30265
2.814858 1.578308 56.19422
2.814858 1.582582 56.08179
2.814858 1.587092 55.96507
2.814857 1.591853 55.84374
2.814857 1.596886 55.71744
2.814858 1.602214 55.58577
2.814858 1.607851 55.4483
2.814858 1.613829 55.30454
2.814857 1.620172 55.15397
2.814858 1.626914 54.99598
2.814857 1.634086 54.82992
2.814858 1.641729 54.65503
2.814858 1.649885 54.47049
2.814858 1.658607 54.27532
2.814858 1.667947 54.0685
2.814858 1.67797 53.84877
2.814858 1.688749 53.61475
2.814857 1.700366 53.36485
2.814857 1.712919 53.09721
2.814858 1.726519 52.80971
2.814858 1.741295 52.49985
2.814858 1.757403 52.1647
2.814858 1.775025 51.80081
2.814858 1.794372 51.40405
2.814857 1.815704 50.96949
2.814858 1.839339 50.49115
2.814858 1.865649 49.96173
-2.308968 1.783203 49.60703
-3.055552 1.574004 55.01448
-3.055552 1.568124 55.17599
-3.055552 1.562604 55.32936
-3.126507 1.562688 55.3776
-3.233932 1.565478 55.3776
-4.720852 1.62491 54.87078
-4.757722 1.622444 54.98903
-4.91854 1.627534 54.98903
-7.530342 1.719551 54.97234
-3.055553 1.490154 57.72732
-3.055552 1.488757 57.79226
-3.055552 1.48743 57.85596
-3.055552 1.486171 57.91848
-3.055552 1.484973 57.9799
-3.055552 1.483838 58.04029
-3.062354 1.483087 58.09667
-3.20049 1.488619 58.09667
-8.784002 1.750533 55.90139
-8.784002 1.747775 56.07371
-8.784002 1.745175 56.24375
-8.784002 1.742728 56.41163
-2.279505 1.441823 58.69095
-8.784002 1.738277 56.74151
-8.784002 1.736264 56.90378
-4.720852 1.550731 58.15315
-4.720852 1.549818 58.23664
-4.720852 1.548974 58.31941
-4.720852 1.548198 58.40152
-4.720852 1.547489 58.48301
-4.720852 1.546845 58.56396
-4.720852 1.546265 58.64442
-4.720852 1.545749 58.72442
-4.720852 1.545295 58.80404
-4.720852 1.544903 58.88331
-4.720852 1.544573 58.9623
-4.720852 1.544303 59.04104
-4.720852 1.544094 59.11959
-4.720852 1.543944 59.19801
-4.720852 1.543855 59.27631
-4.720852 1.543825 59.35458
-4.720852 1.543855 59.43284
-4.720852 1.543944 59.51115
-4.720852 1.544094 59.58956
-4.720852 1.544303 59.66812
-4.720852 1.544573 59.74686
-4.720852 1.544903 59.82584
-4.720852 1.545295 59.90512
-4.720852 1.545749 59.98473
-4.720852 1.546265 60.06474
-4.720852 1.546845 60.14519
-4.720852 1.547489 60.22614
-4.948352 1.558353 60.35598
-4.948352 1.559168 60.44226
-4.948352 1.560055 60.52924
-4.948352 1.561014 60.61696
-4.948352 1.562047 60.70552
-4.948352 1.563157 60.79496
-4.948352 1.564344 60.88537
-4.948352 1.56561 60.97681
-4.948352 1.566959 61.06935
-4.948352 1.568392 61.16307
-4.948352 1.569912 61.25806
-4.948352 1.571522 61.35439
-4.948352 1.573224 61.45218
-4.948352 1.575023 61.55148
-4.948352 1.57692 61.65242
-4.948352 1.57892 61.7551
-4.948352 1.581027 61.85962
-4.948352 1.583246 61.96608
-4.948352 1.58558 62.07464
-4.948352 1.588034 62.18541
-4.948352 1.590615 62.29851
-4.948352 1.593327 62.41412
-4.948352 1.596177 62.53238
-4.948352 1.599171 62.65345
-4.948352 1.602317 62.77753
-4.948352 1.605622 62.90479
-4.948352 1.609095 63.03544
-4.948352 1.612744 63.1697
-4.948352 1.61658 63.30782
-4.948352 1.620613 63.45004
-4.948352 1.624854 63.59664
-4.948352 1.629317 63.74793
-2.286539 1.538657 63.20908
2.182845 1.70947 67.26974
2.908424 1.76989 68.48974
2.908424 1.749599 67.99673
2.908423 1.731282 67.54885
2.908424 1.714669 67.13993
3.020829 1.712101 67.02969
2.978147 1.693194 66.57606
2.918837 1.674096 66.12242
3.052649 1.675708 66.09949
2.980421 1.657489 65.66924
2.908424 1.640589 65.27038
3.011758 1.64064 65.21561
2.908424 1.622728 64.80272
3.012028 1.623491 64.76197
2.157562 1.545356 63.18678
3.047108 1.611333 64.41175
3.163218 1.613548 64.3957
3.301049 1.617381 64.40752
5.221219 1.7535 66.86726
5.424148 1.758774 66.86726
5.632485 1.76431 66.86726
5.846583 1.770129 66.86726
6.066824 1.776246 66.86726
6.293609 1.782677 66.86726
4.80712 1.665097 64.57798
4.80712 1.659515 64.39877
4.824456 1.655272 64.24242
4.824456 1.650225 64.07452
4.824456 1.645431 63.91199
4.824456 1.640874 63.75448
4.824457 1.636541 63.6017
4.824456 1.63242 63.45331
4.824456 1.6285 63.30907
4.824456 1.624769 63.16871
4.824457 1.621218 63.03199
4.824456 1.617838 62.89869
4.824456 1.614621 62.76862
4.824456 1.61156 62.64157
4.824456 1.608646 62.51736
4.824457 1.605874 62.39584
4.824456 1.603237 62.27685
4.824456 1.600729 62.16022
4.824456 1.598346 62.04583
4.824456 1.596082 61.93355
4.824456 1.593933 61.82324
4.824456 1.591895 61.7148
4.824457 1.589963 61.60811
4.824456 1.588134 61.50306
4.824456 1.586405 61.39956
4.824457 1.584772 61.29751
4.824456 1.583232 61.19682
4.824456 1.581783 61.09739
4.824456 1.580422 60.99917
4.824456 1.579147 60.90204
4.80712 1.577168 60.80097
4.80712 1.576062 60.70616
4.80712 1.575034 60.61223
4.998208 1.582647 60.56323
5.532708 1.6056 60.58097
6.072221 1.628684 60.58098
6.718207 1.656417 60.58098
7.50613 1.690348 60.58098
8.489247 1.732802 60.58098
2.157422 1.456817 58.66796
8.58463 1.750823 56.65751
8.063644 1.729126 56.65752
7.595776 1.709753 56.65752
7.17306 1.692355 56.65751
6.789022 1.676651 56.65751
6.438399 1.662405 56.65751
6.116817 1.649433 56.65751
5.820639 1.637573 56.65751
5.546804 1.626694 56.65751
5.292733 1.616681 56.65752
5.056221 1.607439 56.65752
4.835373 1.598886 56.65751
4.628566 1.59095 56.65751
4.434386 1.583571 56.65751
4.251603 1.576696 56.65751
4.07914 1.570274 56.65751
3.916048 1.564268 56.65752
3.761498 1.558641 56.65751
3.61474 1.55336 56.65751
3.475127 1.548398 56.65751
3.342062 1.543727 56.65751
3.21502 1.539326 56.65751
3.093534 1.535175 56.65751
2.977171 1.531255 56.65751
2.865554 1.527549 56.65751
2.814857 1.527364 56.60661
2.814858 1.530255 56.50861
2.814858 1.533298 56.40737
2.814858 1.536503 56.30266
2.814858 1.539879 56.19422
2.814858 1.54344 56.08179
2.814857 1.547198 55.96507
2.814857 1.551165 55.84374
2.814858 1.555359 55.71744
2.814857 1.559796 55.58577
2.814857 1.564492 55.4483
2.814858 1.569471 55.30454
2.814858 1.574757 55.15396
2.814857 1.580371 54.99598
2.814858 1.586348 54.82992
2.814858 1.592716 54.65503
2.814857 1.599513 54.47048
2.814858 1.606778 54.27533
2.814858 1.614559 54.0685
2.814858 1.622908 53.84876
2.814858 1.631888 53.61475
2.814858 1.641566 53.36485
2.814858 1.652026 53.09721
2.814857 1.663354 52.80971
2.814858 1.675665 52.49985
2.814858 1.689084 52.1647
2.814858 1.703764 51.80081
2.814857 1.719882 51.40405
2.814857 1.737655 50.96949
2.814858 1.757339 50.49115
2.814857 1.779264 49.96173
-2.308799 1.696035 49.60782
-3.055552 1.528773 55.01448
-3.055552 1.52407 55.17599
-3.055552 1.519654 55.32936
-3.126508 1.519723 55.3776
-3.233933 1.521955 55.3776
-4.720852 1.569496 54.87078
-4.757722 1.567516 54.98903
-4.91854 1.57159 54.98903
-7.530341 1.645182 54.97234
-3.055552 1.46171 57.72732
-3.055552 1.460592 57.79226
-3.055552 1.45953 57.85596
-3.055552 1.458522 57.91848
-3.055552 1.457565 57.97991
-3.055552 1.456657 58.04029
-3.062356 1.456057 58.09667
-3.200493 1.46048 58.09668
-8.784002 1.669964 55.90139
-8.784002 1.667759 56.07372
-8.784002 1.665679 56.24374
-8.784002 1.663722 56.41163
-2.279368 1.423048 58.69099
-8.784002 1.660162 56.74151
-8.784002 1.658552 56.90378
-4.720852 1.510159 58.15316
-4.720852 1.509429 58.23664
-4.720852 1.508754 58.31941
-4.720852 1.508134 58.40152
-4.720852 1.507566 58.48302
-4.720852 1.507051 58.56396
-4.720852 1.506588 58.64441
-4.720852 1.506175 58.72443
-4.720852 1.505812 58.80403
-4.720852 1.505498 58.88331
-4.720852 1.505234 58.9623
-4.720852 1.505018 59.04104
-4.720852 1.504851 59.11959
-4.720852 1.504731 59.198
-4.720852 1.50466 59.27631
-4.720852 1.504636 59.35458
-4.720852 1.50466 59.43283
-4.720852 1.504731 59.51116
-4.720852 1.504851 59.58957
-4.720852 1.505018 59.66811
-4.720852 1.505234 59.74686
-4.720852 1.505498 59.82584
-4.720853 1.505812 59.90512
-4.720853 1.506175 59.98473
-4.720852 1.506588 60.06474
-4.720852 1.507051 60.14519
-4.720852 1.507566 60.22614
-4.948352 1.516256 60.35599
-4.948352 1.516908 60.44226
-4.948352 1.517617 60.52924
-4.948352 1.518384 60.61696
-4.948352 1.51921 60.70552
-4.948352 1.520097 60.79496
-4.948352 1.521047 60.88537
-4.948352 1.52206 60.97681
-4.948352 1.523139 61.06935
-4.948352 1.524285 61.16307
-4.948352 1.525501 61.25806
-4.948352 1.526788 61.35439
-4.948352 1.52815 61.45218
-4.948352 1.529588 61.55148
-4.948352 1.531106 61.65242
-4.948352 1.532706 61.7551
-4.948352 1.534391 61.85962
-4.948352 1.536165 61.96609
-4.948352 1.538032 62.07464
-4.948352 1.539995 62.1854
-4.948353 1.542059 62.29852
-4.948352 1.544228 62.41412
-4.948352 1.546507 62.53238
-4.948352 1.548902 62.65346
-4.948352 1.551419 62.77753
-4.948352 1.554062 62.90479
-4.948352 1.55684 63.03544
-4.948352 1.559759 63.1697
-4.948352 1.562827 63.30781
-4.948352 1.566052 63.45004
-4.948352 1.569445 63.59664
-4.948352 1.573014 63.74792
-2.286401 1.500535 63.20882
2.182633 1.637045 67.26905
2.908423 1.685447 68.48974
2.908423 1.669217 67.99673
2.908424 1.654567 67.54885
2.908424 1.64128 67.13992
3.020829 1.639226 67.02969
2.978147 1.624103 66.57607
2.918837 1.608829 66.12242
3.052649 1.610118 66.09949
2.98042 1.595546 65.66924
2.908424 1.58203 65.27038
3.011758 1.582071 65.21561
2.908424 1.567744 64.80273
3.012027 1.568354 64.76197
2.157365 1.505847 63.18646
3.047107 1.558633 64.41176
3.163217 1.5604 64.3957
3.301048 1.563468 64.40752
5.221219 1.672341 66.86726
5.424148 1.676556 66.86726
5.632486 1.680984 66.86726
5.846585 1.685638 66.86726
6.066821 1.69053 66.86726
6.293609 1.695674 66.86726
4.80712 1.601634 64.57798
4.807121 1.597167 64.39876
4.824456 1.593773 64.24242
4.824456 1.589737 64.07452
4.824456 1.585902 63.91199
4.824456 1.582257 63.75449
4.824456 1.578792 63.60169
4.824457 1.575496 63.45331
4.824456 1.57236 63.30907
4.824456 1.569376 63.16871
4.824456 1.566536 63.03199
4.824457 1.563833 62.89869
4.824456 1.56126 62.76861
4.824456 1.558811 62.64157
4.824456 1.556481 62.51736
4.824456 1.554263 62.39585
4.824456 1.552154 62.27685
4.824456 1.550149 62.16022
4.824456 1.548243 62.04584
4.824456 1.546432 61.93355
4.824456 1.544713 61.82325
4.824456 1.543083 61.7148
4.824456 1.541538 61.60811
4.824456 1.540075 61.50306
4.824456 1.538692 61.39956
4.824456 1.537386 61.2975
4.824456 1.536154 61.19682
4.824456 1.534995 61.0974
4.824456 1.533907 60.99917
4.824456 1.532887 60.90203
4.80712 1.531304 60.80097
4.80712 1.530419 60.70616
4.80712 1.529599 60.61223
4.998202 1.535687 60.56323
5.532709 1.554045 60.58098
6.072226 1.572507 60.58097
6.718207 1.594689 60.58098
7.506135 1.621827 60.58098
8.489244 1.655783 60.58098
2.157262 1.43504 58.66801
8.584624 1.670193 56.65751
8.063645 1.652842 56.65751
7.595777 1.637348 56.65752
7.173057 1.623433 56.65751
6.789028 1.610867 56.65751
6.438403 1.599478 56.65751
6.11682 1.589102 56.65751
5.820642 1.579618 56.65751
5.546807 1.570916 56.65751
5.292738 1.562908 56.65751
5.056222 1.555516 56.65751
4.835375 1.548674 56.65751
4.628569 1.542328 56.65751
4.434386 1.536425 56.65751
4.251606 1.530926 56.65751
4.07914 1.52579 56.65751
3.916049 1.520987 56.65751
3.761499 1.516485 56.65751
3.614742 1.512262 56.65751
3.475127 1.508293 56.65751
3.342059 1.504558 56.65751
3.21502 1.501038 56.65751
3.093534 1.497718 56.65751
2.977172 1.494582 56.65751
2.865554 1.491618 56.65751
2.814857 1.49147 56.60661
2.814858 1.493782 56.50861
2.814858 1.496216 56.40737
2.814858 1.49878 56.30265
2.814858 1.50148 56.19423
2.814858 1.504328 56.08179
2.814858 1.507334 55.96508
2.814858 1.510506 55.84375
2.814858 1.51386 55.71745
2.814858 1.517409 55.58577
2.814858 1.521166 55.4483
2.814858 1.525149 55.30455
2.814858 1.529375 55.15397
2.814858 1.533869 54.99598
2.814858 1.538647 54.82992
2.814857 1.543739 54.65503
2.814858 1.549174 54.47049
2.814858 1.554986 54.27533
2.814858 1.561209 54.0685
2.814858 1.567887 53.84877
2.814858 1.57507 53.61475
2.814858 1.582811 53.36485
2.814857 1.591177 53.09721
2.814858 1.600237 52.80971
2.814858 1.610084 52.49985
2.814857 1.620818 52.1647
2.814858 1.632558 51.80081
2.814858 1.64545 51.40405
2.814858 1.659664 50.96949
2.814858 1.675411 50.49115
2.814858 1.692944 49.96173
-2.30863 1.60903 49.60862
-3.055552 1.48357 55.01448
-3.055552 1.480042 55.176
-3.055552 1.476732 55.32935
-3.126508 1.476784 55.37759
-3.233933 1.478456 55.3776
-4.720852 1.514104 54.87079
-4.757723 1.512623 54.98903
-4.918541 1.515678 54.98903
-7.530341 1.570862 54.97234
-3.055552 1.433281 57.72732
-3.055552 1.432444 57.79226
-3.055552 1.431648 57.85596
-3.055552 1.430892 57.91848
-3.055552 1.430173 57.9799
-3.055552 1.429492 58.04029
-3.062355 1.429043 58.09668
-3.200491 1.432361 58.09668
-8.784002 1.589445 55.90139
-8.784002 1.587791 56.07371
-8.784002 1.586232 56.24375
-8.784002 1.584764 56.41163
-2.279232 1.404287 58.69103
-8.784002 1.582094 56.74151
-8.784002 1.580887 56.90377
-4.720852 1.469612 58.15315
-4.720852 1.469065 58.23664
-4.720852 1.468559 58.31941
-4.720852 1.468094 58.40152
-4.720852 1.467668 58.48301
-4.720852 1.467282 58.56396
-4.720852 1.466934 58.64442
-4.720852 1.466624 58.72442
-4.720852 1.466352 58.80404
-4.720852 1.466117 58.88331
-4.720852 1.465919 58.9623
-4.720852 1.465757 59.04104
-4.720852 1.465632 59.11959
-4.720852 1.465542 59.198
-4.720852 1.465489 59.27631
-4.720852 1.465471 59.35458
-4.720852 1.465489 59.43284
-4.720852 1.465542 59.51115
-4.720852 1.465632 59.58956
-4.720852 1.465757 59.66811
-4.720852 1.465919 59.74686
-4.720852 1.466117 59.82584
-4.720853 1.466352 59.90512
-4.720852 1.466624 59.98473
-4.720852 1.466934 60.06473
-4.720852 1.467282 60.14519
-4.720852 1.467668 60.22614
-4.948352 1.474184 60.35599
-4.948352 1.474673 60.44226
-4.948352 1.475205 60.52924
-4.948352 1.47578 60.61696
-4.948352 1.4764 60.70551
-4.948352 1.477065 60.79496
-4.948352 1.477777 60.88537
-4.948352 1.478537 60.97681
-4.948352 1.479346 61.06935
-4.948352 1.480205 61.16307
-4.948352 1.481117 61.25806
-4.948352 1.482082 61.3544
-4.948352 1.483103 61.45218
-4.948352 1.484182 61.55148
-4.948352 1.48532 61.65243
-4.948352 1.486519 61.7551
-4.948352 1.487783 61.85961
-4.948352 1.489113 61.96608
-4.948352 1.490513 62.07464
-4.948352 1.491985 62.18541
-4.948352 1.493533 62.29852
-4.948352 1.49516 62.41412
-4.948352 1.496869 62.53238
-4.948352 1.498665 62.65346
-4.948352 1.500552 62.77753
-4.948352 1.502534 62.90479
-4.948352 1.504617 63.03544
-4.948352 1.506805 63.16971
-4.948352 1.509106 63.30782
-4.948352 1.511525 63.45004
-4.948352 1.514068 63.59664
-4.948352 1.516745 63.74792
-2.286261 1.462367 63.20856
2.182421 1.564812 67.26836
2.908424 1.601055 68.48974
2.908424 1.588885 67.99673
2.908424 1.577899 67.54884
2.908424 1.567936 67.13992
3.020829 1.566395 67.02969
2.978148 1.555055 66.57606
2.918836 1.543602 66.12243
3.052649 1.544568 66.09949
2.98042 1.533641 65.66924
2.908424 1.523506 65.27039
3.011758 1.523536 65.2156
2.908424 1.512793 64.80273
3.012028 1.513251 64.76197
2.157168 1.466369 63.18615
3.047108 1.505957 64.41176
3.163218 1.507287 64.3957
3.301048 1.509587 64.40753
5.221218 1.591226 66.86726
5.424147 1.594386 66.86726
5.632485 1.597708 66.86726
5.846585 1.601198 66.86726
6.066823 1.604866 66.86726
6.293611 1.608724 66.86726
4.80712 1.538205 64.57798
4.80712 1.534856 64.39876
4.824456 1.532312 64.24242
4.824456 1.529285 64.07452
4.824456 1.526409 63.91198
4.824457 1.523676 63.75449
4.824456 1.521078 63.60169
4.824456 1.518606 63.45331
4.824456 1.516255 63.30907
4.824456 1.514017 63.16871
4.824456 1.511888 63.03199
4.824456 1.509861 62.89869
4.824456 1.507931 62.76861
4.824456 1.506095 62.64157
4.824456 1.504347 62.51736
4.824456 1.502685 62.39584
4.824457 1.501103 62.27685
4.824456 1.499599 62.16022
4.824456 1.49817 62.04584
4.824456 1.496812 61.93355
4.824457 1.495523 61.82325
4.824456 1.494301 61.71481
4.824456 1.493142 61.60811
4.824456 1.492045 61.50307
4.824456 1.491008 61.39956
4.824457 1.490029 61.29751
4.824456 1.489105 61.19682
4.824456 1.488236 61.09739
4.824456 1.48742 60.99917
4.824456 1.486655 60.90204
4.80712 1.485468 60.80097
4.80712 1.484805 60.70616
4.80712 1.484189 60.61224
4.998203 1.488753 60.56323
5.532707 1.502521 60.58097
6.072225 1.516365 60.58098
6.718205 1.532998 60.58098
7.506138 1.553349 60.58098
8.489238 1.57881 60.58097
2.157102 1.413278 58.66806
8.584635 1.58962 56.65751
8.063645 1.576607 56.65751
7.595778 1.564987 56.65751
7.173057 1.554553 56.65751
6.789025 1.545131 56.65751
6.438405 1.53659 56.65752
6.116818 1.528809 56.65752
5.82064 1.521697 56.65751
5.546807 1.515172 56.65751
5.292737 1.509166 56.65751
5.056223 1.503624 56.65752
4.835377 1.498494 56.65751
4.628568 1.493734 56.65751
4.434389 1.489309 56.65751
4.251606 1.485186 56.65751
4.07914 1.481334 56.65751
3.91605 1.477732 56.65751
3.761499 1.474358 56.65751
3.614742 1.47119 56.65751
3.475126 1.468213 56.65751
3.342059 1.465412 56.65751
3.215021 1.462773 56.65751
3.093534 1.460283 56.65751
2.977171 1.457932 56.65751
2.865554 1.455709 56.65751
2.814858 1.455598 56.60662
2.814858 1.457332 56.50861
2.814857 1.459156 56.40737
2.814858 1.461079 56.30265
2.814858 1.463104 56.19423
2.814858 1.465237 56.08179
2.814858 1.467493 55.96508
2.814857 1.469871 55.84374
2.814858 1.472387 55.71744
2.814857 1.47505 55.58577
2.814858 1.477866 55.4483
2.814858 1.480852 55.30454
2.814858 1.484022 55.15397
2.814858 1.487391 54.99598
2.814858 1.490974 54.82992
2.814858 1.494793 54.65503
2.814858 1.498871 54.47048
2.814858 1.503226 54.27533
2.814858 1.507893 54.06849
2.814858 1.512901 53.84876
2.814857 1.518287 53.61475
2.814858 1.524092 53.36485
2.814857 1.530362 53.09721
2.814857 1.537159 52.80971
2.814857 1.54454 52.49985
2.814858 1.552591 52.1647
2.814858 1.561395 51.80081
2.814857 1.571062 51.40405
2.814858 1.581721 50.96949
2.814858 1.593533 50.49115
2.814858 1.606677 49.96173
-2.308462 1.52202 49.60941
-3.055552 1.438386 55.01449
-3.055552 1.436036 55.17599
-3.055552 1.433831 55.32935
-3.126508 1.433864 55.3776
-3.233933 1.434979 55.3776
-4.720852 1.458738 54.87079
-4.757723 1.457754 54.98903
-4.91854 1.459791 54.98903
-7.530342 1.496574 54.97234
-3.055552 1.404866 57.72732
-3.055552 1.404308 57.79226
-3.055552 1.403778 57.85596
-3.055552 1.403273 57.91849
-3.055552 1.402795 57.9799
-3.055552 1.402341 58.04029
-3.062356 1.402041 58.09668
-3.20049 1.404253 58.09668
-8.784002 1.508962 55.90139
-8.784002 1.50786 56.07372
-8.784002 1.50682 56.24374
-8.784002 1.505842 56.41163
-2.279095 1.385537 58.69109
-8.784002 1.504063 56.74152
-8.784002 1.503258 56.90378
-4.720852 1.429084 58.15315
-4.720852 1.428719 58.23664
-4.720852 1.428382 58.31941
-4.720853 1.428072 58.40152
-4.720852 1.427788 58.48302
-4.720852 1.427531 58.56396
-4.720853 1.427299 58.64442
-4.720852 1.427093 58.72443
-4.720852 1.426911 58.80404
-4.720852 1.426754 58.88331
-4.720852 1.426622 58.96229
-4.720852 1.426514 59.04103
-4.720852 1.426431 59.11959
-4.720852 1.426371 59.198
-4.720852 1.426335 59.27631
-4.720852 1.426323 59.35458
-4.720852 1.426335 59.43283
-4.720852 1.426371 59.51115
-4.720852 1.426431 59.58956
-4.720852 1.426514 59.66812
-4.720852 1.426622 59.74686
-4.720853 1.426754 59.82584
-4.720853 1.426911 59.90512
-4.720853 1.427093 59.98473
-4.720852 1.427299 60.06474
-4.720852 1.427531 60.14519
-4.720852 1.427788 60.22614
-4.948352 1.432132 60.35599
-4.948352 1.432457 60.44226
-4.948352 1.432812 60.52924
-4.948352 1.433195 60.61696
-4.948352 1.433608 60.70552
-4.948352 1.434052 60.79496
-4.948352 1.434526 60.88537
-4.948352 1.435033 60.97681
-4.948352 1.435572 61.06935
-4.948352 1.436145 61.16307
-4.948352 1.436753 61.25806
-4.948352 1.437396 61.35439
-4.948352 1.438077 61.45218
-4.948352 1.438796 61.55148
-4.948352 1.439554 61.65242
-4.948352 1.440354 61.7551
-4.948352 1.441196 61.85962
-4.948352 1.442083 61.96608
-4.948352 1.443016 62.07463
-4.948352 1.443998 62.18541
-4.948352 1.445029 62.29852
-4.948352 1.446114 62.41412
-4.948352 1.447253 62.53238
-4.948352 1.44845 62.65345
-4.948352 1.449708 62.77753
-4.948352 1.451029 62.90479
-4.948352 1.452417 63.03544
-4.948352 1.453876 63.1697
-4.948352 1.45541 63.30781
-4.948352 1.457022 63.45004
-4.948352 1.458718 63.59664
-4.948352 1.460502 63.74792
-2.286122 1.424261 63.2083
2.18221 1.492482 67.26766
2.908424 1.516701 68.48974
2.908424 1.508589 67.99673
2.908423 1.501266 67.54884
2.908424 1.494625 67.13992
3.02083 1.493598 67.02969
2.978147 1.486039 66.57606
2.918837 1.478404 66.12242
3.052649 1.479048 66.09949
2.980421 1.471765 65.66924
2.908424 1.465008 65.27038
3.011758 1.465029 65.2156
2.908423 1.457868 64.80271
3.012027 1.458173 64.76196
2.156972 1.426916 63.18584
3.047108 1.453313 64.41176
3.163217 1.454196 64.3957
3.301047 1.45573 64.40752
5.221218 1.510151 66.86726
5.424148 1.512257 66.86726
5.632486 1.51447 66.86726
5.846584 1.516797 66.86726
6.066823 1.519242 66.86726
6.293611 1.521813 66.86726
4.80712 1.474806 64.57798
4.80712 1.472579 64.39876
4.824456 1.470878 64.24242
4.824456 1.468861 64.07452
4.824456 1.466944 63.91198
4.824457 1.465122 63.75449
4.824457 1.46339 63.60169
4.824456 1.461743 63.45331
4.824456 1.460175 63.30907
4.824456 1.458684 63.1687
4.824456 1.457264 63.03199
4.824456 1.455913 62.89869
4.824456 1.454627 62.76862
4.824456 1.453403 62.64157
4.824456 1.452238 62.51736
4.824457 1.45113 62.39584
4.824456 1.450075 62.27685
4.824456 1.449073 62.16022
4.824456 1.44812 62.04584
4.824456 1.447215 61.93355
4.824456 1.446356 61.82325
4.824456 1.445541 61.7148
4.824456 1.444769 61.60811
4.824456 1.444038 61.50307
4.824456 1.443346 61.39956
4.824456 1.442693 61.29751
4.824456 1.442078 61.19682
4.824456 1.441499 61.0974
4.824456 1.440954 60.99916
4.824456 1.440444 60.90204
4.80712 1.439653 60.80097
4.80712 1.439211 60.70616
4.80712 1.438801 60.61224
4.998203 1.441846 60.56323
5.53271 1.45102 60.58098
6.072228 1.460249 60.58098
6.718208 1.471336 60.58098
7.506141 1.484901 60.58098
8.489242 1.501873 60.58098
2.156943 1.39153 58.66811
8.58463 1.50908 56.65751
8.063646 1.500404 56.65751
7.595779 1.492659 56.65751
7.173059 1.485704 56.65751
6.789029 1.479423 56.65751
6.438399 1.47373 56.65751
6.116817 1.468546 56.65751
5.820642 1.463803 56.65751
5.546807 1.459453 56.65751
5.292732 1.455449 56.65751
5.056224 1.451756 56.65751
4.835376 1.448336 56.65751
4.628568 1.445163 56.65751
4.434387 1.442213 56.65751
4.251605 1.439464 56.65751
4.079138 1.436897 56.65751
3.916051 1.434496 56.65751
3.761499 1.432248 56.65752
3.614743 1.430135 56.65751
3.475126 1.428151 56.65751
3.342059 1.426284 56.65751
3.215021 1.424525 56.65752
3.093534 1.422865 56.65751
2.977171 1.421298 56.65751
2.865553 1.419816 56.65751
2.814858 1.419742 56.60662
2.814858 1.420898 56.50861
2.814858 1.422115 56.40737
2.814857 1.423397 56.30265
2.814857 1.424745 56.19422
2.814857 1.426171 56.08179
2.814858 1.427672 55.96507
2.814858 1.429256 55.84374
2.814858 1.430936 55.71744
2.814858 1.432708 55.58577
2.814858 1.434586 55.4483
2.814858 1.436577 55.30454
2.814858 1.438689 55.15397
2.814858 1.440934 54.99598
2.814858 1.443323 54.82992
2.814858 1.445869 54.65503
2.814858 1.448587 54.47049
2.814858 1.45149 54.27533
2.814858 1.454602 54.0685
2.814858 1.457939 53.84876
2.814858 1.46153 53.61475
2.814858 1.465399 53.36485
2.814858 1.46958 53.09721
2.814858 1.47411 52.80971
2.814858 1.479032 52.49985
2.814858 1.484397 52.1647
2.814858 1.490265 51.80081
2.814858 1.496709 51.40405
2.814858 1.503813 50.9695
2.814858 1.511686 50.49115
2.814858 1.520449 49.96173
-2.308293 1.434986 49.6102
-3.055552 1.39322 55.01449
-3.055552 1.392045 55.17599
-3.055552 1.390942 55.32936
-3.126508 1.390958 55.3776
-3.233932 1.391517 55.3776
-4.720852 1.403401 54.87078
-4.757722 1.402902 54.98903
-4.91854 1.403918 54.98903
-7.530341 1.422308 54.97233
-3.055553 1.37646 57.72733
-3.055552 1.376181 57.79226
-3.055552 1.375916 57.85596
-3.055552 1.375664 57.91848
-3.055552 1.375424 57.9799
-3.055552 1.375197 58.04029
-3.062356 1.375048 58.09668
-3.200492 1.376153 58.09668
-8.784002 1.428504 55.90139
-8.784002 1.427953 56.07371
-8.784002 1.427433 56.24374
-8.784002 1.426944 56.41163
-2.278958 1.366795 58.69112
-8.784002 1.426054 56.74152
-8.784002 1.425652 56.90378
-4.720852 1.388568 58.15315
-4.720852 1.388386 58.23664
-4.720852 1.388217 58.31941
-4.720852 1.388062 58.40152
-4.720852 1.38792 58.48301
-4.720852 1.387792 58.56396
-4.720852 1.387676 58.64442
-4.720852 1.387573 58.72442
-4.720852 1.387482 58.80404
-4.720852 1.387403 58.88331
-4.720852 1.387337 58.9623
-4.720852 1.387283 59.04104
-4.720852 1.387242 59.11959
-4.720852 1.387212 59.198
-4.720853 1.387194 59.27632
-4.720852 1.387188 59.35458
-4.720852 1.387194 59.43284
-4.720852 1.387212 59.51115
-4.720852 1.387242 59.58956
-4.720852 1.387284 59.66812
-4.720852 1.387337 59.74686
-4.720852 1.387403 59.82584
-4.720852 1.387482 59.90512
-4.720852 1.387573 59.98473
-4.720853 1.387676 60.06474
-4.720852 1.387791 60.14519
-4.720852 1.38792 60.22614
-4.948352 1.390092 60.35599
-4.948352 1.390255 60.44226
-4.948352 1.390432 60.52924
-4.948352 1.390624 60.61696
-4.948352 1.39083 60.70552
-4.948352 1.391052 60.79496
-4.948352 1.391289 60.88537
-4.948352 1.391542 60.97681
-4.948352 1.391812 61.06935
-4.948352 1.392098 61.16307
-4.948352 1.392402 61.25806
-4.948352 1.392724 61.3544
-4.948352 1.393064 61.45218
-4.948352 1.393424 61.55148
-4.948352 1.393803 61.65242
-4.948352 1.394203 61.7551
-4.948352 1.394624 61.85962
-4.948352 1.395067 61.96608
-4.948352 1.395534 62.07464
-4.948352 1.396024 62.18541
-4.948352 1.39654 62.29852
-4.948352 1.397082 62.41413
-4.948352 1.397652 62.53238
-4.948352 1.39825 62.65345
-4.948352 1.398879 62.77753
-4.948352 1.39954 62.90479
-4.948352 1.400234 63.03544
-4.948352 1.400963 63.1697
-4.948352 1.40173 63.30782
-4.948352 1.402536 63.45004
-4.948352 1.403384 63.59664
-4.948352 1.404276 63.74792
-2.285984 1.38615 63.20803
2.181999 1.420313 67.26698
2.908424 1.432373 68.48974
2.908424 1.428318 67.99673
2.908424 1.424656 67.54885
2.908424 1.421336 67.13992
3.020828 1.420822 67.02969
2.978148 1.417043 66.57605
2.918835 1.413226 66.12242
3.052649 1.413548 66.09949
2.98042 1.409907 65.66924
2.908424 1.406529 65.27039
3.011757 1.406539 65.21561
2.908424 1.402959 64.80273
3.012028 1.403111 64.76197
2.156775 1.387481 63.18552
3.047108 1.400686 64.41176
3.163217 1.401124 64.39571
3.301049 1.40189 64.40752
5.221219 1.429098 66.86726
5.424147 1.430151 66.86726
5.632485 1.431258 66.86726
5.846585 1.432421 66.86726
6.066823 1.433644 66.86726
6.293611 1.434929 66.86726
4.80712 1.411428 64.57798
4.80712 1.410312 64.39876
4.824456 1.409464 64.24242
4.824456 1.408455 64.07452
4.824456 1.407497 63.91198
4.824456 1.406586 63.75449
4.824456 1.40572 63.60169
4.824457 1.404896 63.45331
4.824456 1.404113 63.30907
4.824457 1.403367 63.1687
4.824456 1.402657 63.03199
4.824456 1.401982 62.89869
4.824457 1.401339 62.76861
4.824456 1.400727 62.64157
4.824456 1.400144 62.51736
4.824456 1.39959 62.39585
4.824456 1.399063 62.27684
4.824456 1.398562 62.16022
4.824456 1.398085 62.04584
4.824456 1.397633 61.93355
4.824456 1.397203 61.82325
4.824456 1.396796 61.7148
4.824457 1.39641 61.60811
4.824456 1.396044 61.50307
4.824456 1.395699 61.39956
4.824456 1.395372 61.29751
4.824456 1.395064 61.19682
4.824457 1.394775 61.09739
4.824456 1.394503 60.99916
4.824456 1.394248 60.90204
4.80712 1.393852 60.80097
4.80712 1.393631 60.70616
4.80712 1.393427 60.61223
4.998202 1.394946 60.56324
5.532708 1.399535 60.58098
6.072221 1.404149 60.58098
6.718208 1.409693 60.58098
7.506139 1.416475 60.58098
8.489248 1.42496 60.58098
2.156783 1.369791 58.66816
8.58463 1.42856 56.65751
8.063644 1.424226 56.65751
7.595777 1.420353 56.65751
7.173059 1.416876 56.65751
6.789022 1.413736 56.65751
6.438406 1.41089 56.65751
6.116819 1.408295 56.65751
5.820641 1.405926 56.65751
5.546803 1.403752 56.65751
5.292735 1.40175 56.65751
5.056223 1.399904 56.65751
4.835376 1.398193 56.65751
4.628566 1.396607 56.65751
4.434387 1.395132 56.65751
4.251604 1.393758 56.65751
4.079139 1.392475 56.65751
3.916052 1.391274 56.65751
3.761497 1.390148 56.65751
3.614743 1.389094 56.65751
3.475128 1.388102 56.65751
3.342059 1.387168 56.65751
3.215019 1.386289 56.65751
3.093534 1.385458 56.65751
2.97717 1.384674 56.65751
2.865553 1.383934 56.65751
2.814858 1.383898 56.60662
2.814858 1.384476 56.50861
2.814857 1.385084 56.40737
2.814857 1.385725 56.30265
2.814858 1.386399 56.19423
2.814857 1.387112 56.08179
2.814857 1.387865 55.96507
2.814858 1.388654 55.84374
2.814857 1.389493 55.71744
2.814858 1.39038 55.58577
2.814857 1.391319 55.4483
2.814858 1.392314 55.30454
2.814858 1.39337 55.15397
2.814858 1.394495 54.99598
2.814858 1.395687 54.82992
2.814857 1.39696 54.65503
2.814857 1.398316 54.47048
2.814858 1.399772 54.27533
2.814858 1.401327 54.0685
2.814858 1.402995 53.84876
2.814857 1.404789 53.61475
2.814858 1.406724 53.36485
2.814858 1.408815 53.09721
2.814857 1.41108 52.80971
2.814857 1.413538 52.49985
2.814858 1.416222 52.1647
2.814858 1.419156 51.80081
2.814857 1.422378 51.40405
2.814857 1.425931 50.96949
2.814857 1.429866 50.49115
2.814858 1.434247 49.96173
-2.308125 1.348128 49.61099
-3.055552 1.348059 55.01448
-3.055552 1.348058 55.17599
-3.055552 1.348059 55.32935
-3.126508 1.348058 55.3776
-3.233933 1.348057 55.3776
-4.720852 1.348056 54.87078
-4.757721 1.348058 54.98903
-4.918541 1.348059 54.98903
-7.530341 1.348062 54.97234
-3.055552 1.348059 57.72732
-3.055552 1.348059 57.79226
-3.055552 1.348059 57.85596
-3.055552 1.348058 57.91848
-3.055552 1.348059 57.97991
-3.055552 1.348058 58.04029
-3.062356 1.348058 58.09668
-3.200492 1.348059 58.09668
-8.784002 1.348059 55.90139
-8.784002 1.348058 56.07371
-8.784002 1.348059 56.24375
-8.784002 1.348058 56.41163
-2.278822 1.348058 58.69117
-8.784002 1.348058 56.74151
-8.784002 1.348058 56.90378
-4.720853 1.348058 58.15315
-4.720852 1.348058 58.23664
-4.720852 1.348058 58.31941
-4.720852 1.348058 58.40152
-4.720852 1.348058 58.48302
-4.720852 1.348058 58.56397
-4.720852 1.348058 58.64442
-4.720852 1.348059 58.72442
-4.720853 1.348058 58.80404
-4.720852 1.348058 58.88331
-4.720852 1.348058 58.9623
-4.720852 1.348058 59.04104
-4.720852 1.348058 59.11959
-4.720852 1.348058 59.198
-4.720852 1.348058 59.27632
-4.720852 1.348058 59.35458
-4.720852 1.348058 59.43284
-4.720852 1.348058 59.51115
-4.720852 1.348058 59.58957
-4.720852 1.348058 59.66812
-4.720852 1.348058 59.74686
-4.720852 1.348058 59.82584
-4.720852 1.348058 59.90512
-4.720852 1.348059 59.98473
-4.720853 1.348059 60.06474
-4.720852 1.348058 60.14519
-4.720852 1.348058 60.22614
-4.948352 1.348058 60.35598
-4.948352 1.348058 60.44226
-4.948352 1.348058 60.52924
-4.948352 1.348058 60.61696
-4.948352 1.348058 60.70552
-4.948352 1.348058 60.79496
-4.948352 1.348058 60.88537
-4.948352 1.348058 60.9768
-4.948352 1.348058 61.06935
-4.948352 1.348058 61.16307
-4.948352 1.348058 61.25806
-4.948352 1.348058 61.3544
-4.948352 1.348058 61.45218
-4.948352 1.348058 61.55148
-4.948352 1.348058 61.65242
-4.948352 1.348058 61.7551
-4.948352 1.348058 61.85962
-4.948352 1.348058 61.96609
-4.948352 1.348058 62.07464
-4.948352 1.348059 62.1854
-4.948352 1.348059 62.29851
-4.948352 1.348058 62.41412
-4.948352 1.348058 62.53238
-4.948352 1.348058 62.65346
-4.948352 1.348059 62.77753
-4.948352 1.348058 62.90479
-4.948352 1.348059 63.03544
-4.948352 1.348058 63.1697
-4.948352 1.348059 63.30782
-4.948352 1.348059 63.45004
-4.948352 1.348058 63.59664
-4.948352 1.348059 63.74792
-2.285843 1.347967 63.20777
2.181788 1.348091 67.26628
2.908424 1.348058 68.48974
2.908424 1.348058 67.99673
2.908424 1.348058 67.54884
2.908424 1.348058 67.13993
3.020828 1.348058 67.02969
2.978147 1.348058 66.57605
2.918836 1.348058 66.12242
3.052649 1.348058 66.09949
2.98042 1.348058 65.66925
2.908424 1.348058 65.27038
3.011757 1.348058 65.2156
2.908424 1.348058 64.80272
3.012027 1.348058 64.76196
2.156579 1.348058 63.1852
3.047107 1.348059 64.41176
3.163217 1.348058 64.3957
3.301048 1.348058 64.40752
5.221218 1.348058 66.86726
5.424147 1.348058 66.86726
5.632484 1.348058 66.86726
5.846585 1.348059 66.86726
6.066824 1.348059 66.86726
6.29361 1.348058 66.86726
4.80712 1.348059 64.57798
4.80712 1.348058 64.39877
4.824456 1.348058 64.24243
4.824456 1.348058 64.07452
4.824456 1.348058 63.91198
4.824456 1.348058 63.75449
4.824456 1.348059 63.60169
4.824456 1.348058 63.45331
4.824456 1.348058 63.30907
4.824456 1.348058 63.16871
4.824457 1.348059 63.03199
4.824456 1.348058 62.89869
4.824456 1.348058 62.76862
4.824456 1.348058 62.64157
4.824456 1.348059 62.51737
4.824456 1.348058 62.39585
4.824456 1.348059 62.27684
4.824457 1.348058 62.16022
4.824456 1.348058 62.04584
4.824457 1.348058 61.93355
4.824456 1.348058 61.82325
4.824456 1.348058 61.71481
4.824457 1.348058 61.60811
4.824456 1.348058 61.50307
4.824457 1.348058 61.39956
4.824456 1.348058 61.29751
4.824457 1.348058 61.19682
4.824456 1.348058 61.0974
4.824456 1.348059 60.99917
4.824456 1.348058 60.90204
4.80712 1.348058 60.80097
4.80712 1.348058 60.70616
4.80712 1.348059 60.61224
4.998204 1.348063 60.56323
5.532711 1.348058 60.58097
6.072226 1.348058 60.58097
6.718212 1.348058 60.58097
7.506133 1.348058 60.58097
8.489241 1.348058 60.58097
2.156623 1.348058 58.6682
8.584624 1.348058 56.65751
8.063644 1.348058 56.65751
7.595777 1.348058 56.65752
7.173059 1.348058 56.65751
6.789029 1.348059 56.65751
6.4384 1.348058 56.65751
6.11682 1.348059 56.65751
5.820642 1.348058 56.65751
5.546807 1.348058 56.65752
5.292737 1.348059 56.65751
5.056223 1.348058 56.65751
4.835376 1.348058 56.65751
4.62857 1.348058 56.65751
4.434387 1.348058 56.65751
4.251605 1.348059 56.65751
4.079138 1.348058 56.65752
3.916051 1.348058 56.65751
3.761499 1.348058 56.65752
3.614742 1.348059 56.65751
3.475127 1.348058 56.65751
3.34206 1.348058 56.65751
3.215021 1.348058 56.65751
3.093534 1.348058 56.65751
2.977172 1.348058 56.65752
2.865554 1.348058 56.65751
2.814858 1.348059 56.60662
2.814858 1.348059 56.50862
2.814857 1.348059 56.40737
2.814857 1.348058 56.30265
2.814858 1.348058 56.19423
2.814857 1.348058 56.08179
2.814858 1.348058 55.96507
2.814858 1.348058 55.84375
2.814858 1.348058 55.71744
2.814857 1.348058 55.58577
2.814858 1.348058 55.4483
2.814858 1.348058 55.30454
2.814857 1.348058 55.15397
2.814858 1.348058 54.99598
2.814858 1.348058 54.82993
2.814858 1.348058 54.65503
2.814858 1.348056 54.47049
2.814857 1.348058 54.27533
2.814858 1.348058 54.06849
2.814858 1.348058 53.84877
2.814858 1.348058 53.61475
2.814857 1.348059 53.36485
2.814858 1.348059 53.09722
2.814858 1.348059 52.80972
2.814858 1.348058 52.49985
2.814858 1.348058 52.1647
2.814857 1.348058 51.80081
2.814857 1.348058 51.40405
2.814858 1.348059 50.96949
2.814858 1.348058 50.49115
2.814858 1.348058 49.96173
-2.307955 1.261135 49.61179
-3.055552 1.302896 55.01448
-3.055552 1.304073 55.17599
-3.055552 1.305176 55.32936
-3.126508 1.305159 55.3776
-3.233932 1.304601 55.3776
-4.720852 1.292723 54.87079
-4.757722 1.293215 54.98903
-4.91854 1.292196 54.98903
-7.530341 1.273803 54.97233
-3.055553 1.319656 57.72732
-3.055552 1.319937 57.79226
-3.055552 1.320201 57.85596
-3.055552 1.320453 57.91848
-3.055552 1.320691 57.97991
-3.055552 1.320919 58.04029
-3.062356 1.321069 58.09668
-3.200492 1.319964 58.09668
-8.784002 1.267613 55.90139
-8.784002 1.268164 56.07372
-8.784002 1.268684 56.24375
-8.784002 1.269173 56.41163
-2.278685 1.329325 58.69121
-8.784002 1.270062 56.74151
-8.784002 1.270465 56.90378
-4.720852 1.307549 58.15314
-4.720852 1.307731 58.23664
-4.720852 1.3079 58.31941
-4.720852 1.308055 58.40152
-4.720852 1.308197 58.48302
-4.720852 1.308326 58.56396
-4.720852 1.308441 58.64442
-4.720852 1.308545 58.72442
-4.720852 1.308635 58.80404
-4.720852 1.308714 58.88331
-4.720852 1.30878 58.9623
-4.720852 1.308833 59.04104
-4.720852 1.308875 59.11959
-4.720852 1.308905 59.198
-4.720852 1.308923 59.27631
-4.720852 1.308929 59.35458
-4.720852 1.308923 59.43284
-4.720852 1.308905 59.51115
-4.720852 1.308875 59.58956
-4.720852 1.308833 59.66811
-4.720852 1.30878 59.74686
-4.720852 1.308713 59.82584
-4.720852 1.308635 59.90512
-4.720852 1.308545 59.98473
-4.720853 1.308441 60.06474
-4.720853 1.308325 60.14519
-4.720852 1.308197 60.22614
-4.948352 1.306025 60.35599
-4.948352 1.305862 60.44226
-4.948352 1.305685 60.52924
-4.948352 1.305493 60.61696
-4.948352 1.305287 60.70552
-4.948352 1.305065 60.79496
-4.948352 1.304828 60.88537
-4.948352 1.304575 60.97681
-4.948352 1.304305 61.06935
-4.948352 1.304018 61.16307
-4.948352 1.303715 61.25806
-4.948352 1.303393 61.3544
-4.948352 1.303053 61.45218
-4.948352 1.302693 61.55148
-4.948352 1.302314 61.65242
-4.948352 1.301914 61.7551
-4.948352 1.301493 61.85962
-4.948352 1.30105 61.96608
-4.948352 1.300583 62.07464
-4.948352 1.300092 62.1854
-4.948352 1.299577 62.29852
-4.948352 1.299035 62.41413
-4.948352 1.298465 62.53238
-4.948352 1.297867 62.65346
-4.948352 1.297238 62.77753
-4.948353 1.296577 62.90479
-4.948352 1.295883 63.03544
-4.948352 1.295154 63.1697
-4.948352 1.294387 63.30782
-4.948352 1.293581 63.45004
-4.948352 1.292733 63.59664
-4.948352 1.291841 63.74792
-2.285707 1.309977 63.20752
2.181577 1.27588 67.26559
2.814858 1.26187 68.74742
2.814858 1.266252 68.21799
2.814858 1.270187 67.73966
2.814858 1.273739 67.3051
2.814858 1.276961 66.90834
2.814858 1.279895 66.54445
2.814858 1.282577 66.2093
2.814858 1.285038 65.89944
2.814857 1.287302 65.61194
2.814858 1.289393 65.34431
2.893103 1.289873 65.24156
2.995367 1.289873 65.18603
2.908424 1.293158 64.80272
3.012028 1.293005 64.76197
2.156382 1.308642 63.18488
3.047108 1.295438 64.41176
3.163216 1.294993 64.39571
3.301049 1.294227 64.40753
5.221219 1.267019 66.86726
5.424148 1.265966 66.86726
5.632485 1.264859 66.86726
5.846586 1.263696 66.86726
6.066824 1.262473 66.86726
4.671804 1.282761 65.00158
4.671804 1.284036 64.80643
4.671804 1.285244 64.61869
4.671804 1.286389 64.43786
4.671804 1.287475 64.26344
4.671804 1.288505 64.09502
4.671804 1.289483 63.93217
5.628488 1.279178 64.63594
5.838453 1.277806 64.63594
4.824456 1.290397 63.60169
4.824456 1.291221 63.45331
4.824456 1.292004 63.30907
4.824456 1.29275 63.1687
4.824456 1.29346 63.03199
4.824456 1.294135 62.89869
4.824457 1.294778 62.76861
4.824456 1.29539 62.64157
4.824456 1.295973 62.51736
4.824456 1.296527 62.39585
4.824456 1.297054 62.27684
4.824456 1.297555 62.16022
4.824456 1.298031 62.04584
4.824456 1.298484 61.93355
4.824456 1.298913 61.82324
4.824457 1.299321 61.7148
4.824457 1.299707 61.60811
4.824456 1.300073 61.50307
4.824456 1.300418 61.39956
4.824456 1.300745 61.29751
4.824456 1.301052 61.19682
4.824457 1.301342 61.09739
4.824457 1.301614 60.99916
4.824456 1.301869 60.90204
4.80712 1.302264 60.80097
4.80712 1.302486 60.70616
4.80712 1.302691 60.61224
4.998202 1.301169 60.56323
5.532708 1.296582 60.58098
6.072221 1.291968 60.58098
8.639541 1.269628 60.76049
8.63954 1.269832 60.6021
2.156463 1.326329 58.66824
8.58463 1.267554 56.65751
8.063644 1.271892 56.65751
7.595777 1.275764 56.65751
7.173059 1.279241 56.65751
6.789023 1.282379 56.65751
6.438406 1.285228 56.65751
6.11682 1.28782 56.65751
5.820641 1.290191 56.65751
5.546803 1.292366 56.65751
5.292735 1.294367 56.65751
5.056224 1.296215 56.65751
4.835376 1.297924 56.65752
4.628567 1.29951 56.65751
4.434387 1.300984 56.65751
4.251604 1.302359 56.65752
4.079139 1.303643 56.65751
3.916052 1.304843 56.65751
3.761497 1.305966 56.65751
3.614743 1.307023 56.65751
3.475128 1.308015 56.65751
3.342059 1.308949 56.65751
3.215019 1.309828 56.65751
3.093534 1.310659 56.65751
2.97717 1.311442 56.65751
2.865553 1.312182 56.65751
2.814858 1.312219 56.60662
2.814857 1.311641 56.50861
2.814858 1.311033 56.40737
2.814858 1.310393 56.30265
2.814858 1.309717 56.19423
2.814858 1.309006 56.08179
2.814858 1.308257 55.96508
2.814858 1.307462 55.84374
2.814857 1.306624 55.71744
2.814857 1.305736 55.58577
2.814858 1.304798 55.4483
2.814857 1.303803 55.30454
2.814858 1.302746 55.15397
2.814858 1.301624 54.99598
2.814858 1.30043 54.82992
2.814858 1.299157 54.65503
2.814858 1.297796 54.47048
2.814858 1.296347 54.27533
2.814858 1.294791 54.06849
2.814858 1.293121 53.84877
2.814858 1.291327 53.61475
2.814858 1.289393 53.36485
2.814858 1.287302 53.09721
2.202185 1.297689 54.12359
2.814857 1.282577 52.49985
2.814858 1.279895 52.1647
2.814858 1.27696 51.80081
2.814858 1.273739 51.40405
2.814857 1.270186 50.96949
2.814858 1.266253 50.49115
2.814858 1.26187 49.96173
-2.307784 1.174213 49.61259
-3.055552 1.257728 55.01448
-3.055552 1.260081 55.17599
-3.055552 1.262287 55.32935
-3.126508 1.262253 55.3776
-3.233933 1.261138 55.3776
-4.720852 1.237375 54.87078
-4.757723 1.238363 54.98903
-4.91854 1.236327 54.98903
-7.530341 1.199538 54.97234
-3.055552 1.291251 57.72732
-3.055552 1.29181 57.79226
-3.055552 1.29234 57.85596
-3.055552 1.292843 57.91849
-3.055552 1.293322 57.97991
-3.055552 1.293775 58.04029
-3.062356 1.294076 58.09668
-3.200491 1.291864 58.09667
-8.784002 1.187155 55.90139
-8.784002 1.188257 56.07372
-8.784002 1.189297 56.24375
-8.784002 1.190275 56.41163
-2.278549 1.31059 58.69125
-8.784002 1.192055 56.74151
-8.784002 1.192859 56.90378
-4.720852 1.267033 58.15314
-4.720852 1.267398 58.23664
-4.720852 1.267735 58.31941
-4.720853 1.268045 58.40152
-4.720852 1.268329 58.48302
-4.720852 1.268586 58.56396
-4.720852 1.268818 58.64441
-4.720852 1.269025 58.72442
-4.720852 1.269206 58.80404
-4.720852 1.269362 58.88331
-4.720852 1.269495 58.9623
-4.720852 1.269603 59.04104
-4.720852 1.269686 59.11959
-4.720852 1.269746 59.19801
-4.720852 1.269782 59.27632
-4.720852 1.269794 59.35458
-4.720852 1.269782 59.43283
-4.720852 1.269746 59.51115
-4.720852 1.269686 59.58956
-4.720852 1.269603 59.66811
-4.720852 1.269495 59.74686
-4.720852 1.269362 59.82584
-4.720853 1.269206 59.90512
-4.720853 1.269025 59.98473
-4.720852 1.268818 60.06474
-4.720852 1.268586 60.14519
-4.720852 1.268329 60.22614
-4.948352 1.263985 60.35599
-4.948352 1.263659 60.44226
-4.948352 1.263305 60.52924
-4.948352 1.262922 60.61696
-4.948352 1.262509 60.70552
-4.948352 1.262065 60.79496
-4.948352 1.26159 60.88537
-4.948352 1.261084 60.97681
-4.948352 1.260545 61.06935
-4.948352 1.259972 61.16307
-4.948352 1.259364 61.25806
-4.948352 1.258721 61.3544
-4.948352 1.25804 61.45218
-4.948352 1.257321 61.55148
-4.948352 1.256563 61.65242
-4.948352 1.255763 61.7551
-4.948352 1.254921 61.85962
-4.948352 1.254034 61.96608
-4.948352 1.253101 62.07464
-4.948352 1.252119 62.18541
-4.948352 1.251088 62.29852
-4.948352 1.250003 62.41412
-4.948352 1.248864 62.53238
-4.948352 1.247667 62.65345
-4.948352 1.246409 62.77753
-4.948352 1.245088 62.90479
-4.948352 1.2437 63.03544
-4.948353 1.242241 63.16971
-4.948352 1.240707 63.30781
-4.948352 1.239095 63.45004
-4.948352 1.237399 63.59664
-4.948352 1.235615 63.74792
-2.28557 1.271894 63.20726
-2.337587 1.196502 67.77931
2.181365 1.203702 67.2649
2.814858 1.175668 68.74742
2.814858 1.184432 68.21799
2.814858 1.192303 67.73965
2.814857 1.199408 67.3051
2.814858 1.205852 66.90834
2.814857 1.21172 66.54445
2.814858 1.217086 66.2093
2.814858 1.222008 65.89944
2.814858 1.226537 65.61194
2.814858 1.230718 65.34431
2.814858 1.234587 65.09441
2.814858 1.238177 64.86038
2.814857 1.241515 64.64066
2.814858 1.244626 64.43382
2.156186 1.269227 63.18457
2.814858 1.250248 64.05412
2.924448 1.249373 64.04171
3.044903 1.248182 64.04171
3.168339 1.246931 64.04172
3.294946 1.245616 64.04171
5.632487 1.181647 66.86726
5.846585 1.17932 66.86726
6.066823 1.176875 66.86726
4.671804 1.217453 65.00158
4.671804 1.220005 64.80643
4.671804 1.222421 64.61869
4.671804 1.224711 64.43786
4.671804 1.226882 64.26344
4.671804 1.228943 64.09502
4.671804 1.2309 63.93217
4.671804 1.232759 63.77454
4.671804 1.234525 63.62179
4.671804 1.236205 63.4736
4.671804 1.237803 63.3297
4.671804 1.239323 63.18981
4.671804 1.24077 63.05367
4.671804 1.242146 62.92108
4.671804 1.243457 62.79181
4.671804 1.244704 62.66564
4.671804 1.245891 62.54243
4.671804 1.247021 62.42197
4.671804 1.248096 62.30412
4.671804 1.249118 62.18872
4.671804 1.250091 62.07561
4.671804 1.251015 61.96467
4.671804 1.251892 61.85577
4.671804 1.252726 61.74879
4.671804 1.253516 61.64362
4.671804 1.254265 61.54015
4.671804 1.254974 61.43827
4.671804 1.255645 61.33789
4.671804 1.256278 61.23891
4.671804 1.256875 61.14126
4.671804 1.257437 61.04484
4.671804 1.257964 60.94956
4.671804 1.258459 60.85537
4.671804 1.258921 60.76218
4.671804 1.259351 60.66991
4.671804 1.259751 60.5785
4.671804 1.26012 60.48788
4.671804 1.26046 60.39798
8.639541 1.191186 60.7605
8.639541 1.191594 60.6021
2.156304 1.304599 58.66829
8.58463 1.187043 56.65751
8.063646 1.195713 56.65752
7.595778 1.203457 56.65751
7.173058 1.210413 56.65751
6.789029 1.216691 56.65751
6.438399 1.222387 56.65751
6.116817 1.227573 56.65751
5.820642 1.232314 56.65751
5.546807 1.236664 56.65751
5.292732 1.240667 56.65751
5.056224 1.244362 56.65751
4.835376 1.247781 56.65751
4.628568 1.250953 56.65751
4.434387 1.253904 56.65751
4.251605 1.256653 56.65752
4.079139 1.25922 56.65752
3.916051 1.26162 56.65751
3.761499 1.26387 56.65752
3.614743 1.265982 56.65751
3.475127 1.267966 56.65751
3.34206 1.269833 56.65751
3.21502 1.271592 56.65751
3.093534 1.273252 56.65751
2.977171 1.274819 56.65751
2.865554 1.2763 56.65751
2.814858 1.276375 56.60662
2.814858 1.275219 56.50861
2.814858 1.274002 56.40738
2.814857 1.272721 56.30265
2.814857 1.271371 56.19422
2.814858 1.269948 56.08179
2.814857 1.268445 55.96507
2.814858 1.266858 55.84374
2.814858 1.265182 55.71744
2.814858 1.26341 55.58577
2.814857 1.261531 55.44829
2.814857 1.25954 55.30454
2.814858 1.257428 55.15397
2.814858 1.255182 54.99598
2.814858 1.252794 54.82992
